ply
format ascii 1.0
comment VCGLIB generated
element vertex 1098
property float x
property float y
property float z
property uchar red
property uchar green
property uchar blue
property uchar alpha
element face 0
property list uchar int vertex_indices
end_header
-0.408542 0.378743 -2.88336 167 118 99 255 
-0.393511 0.359504 -2.87229 171 121 103 255 
-0.365585 0.372879 -2.85392 174 125 106 255 
-0.340911 0.373426 -2.84412 175 126 106 255 
-0.304826 0.349709 -2.8224 186 135 115 255 
-0.315492 0.372288 -2.82459 182 132 112 255 
-0.282345 0.366534 -2.79833 193 142 122 255 
-0.235202 0.355368 -2.78062 198 147 126 255 
-0.190072 0.359768 -2.74652 198 147 125 255 
-0.172652 0.343422 -2.73733 202 150 129 255 
-0.148889 0.351877 -2.71926 203 152 130 255 
-0.0842753 0.353499 -2.67316 215 163 142 255 
-0.0804999 0.351347 -2.67092 215 164 142 255 
-0.0664569 0.335878 -2.6551 215 164 143 255 
-0.0522805 0.321166 -2.61239 218 166 145 255 
-0.0270687 0.324231 -2.61224 218 167 146 255 
-0.00363048 0.345925 -2.62945 216 164 144 255 
0.0222795 0.338928 -2.63307 215 164 144 255 
0.0437548 0.319682 -2.60437 209 157 138 255 
0.0434652 0.323015 -2.61623 210 158 139 255 
0.0673789 0.320372 -2.60222 206 155 136 255 
0.0961666 0.330797 -2.59992 206 156 138 255 
0.119454 0.319682 -2.59632 200 150 132 255 
0.144738 0.328203 -2.63833 199 149 132 255 
0.209122 0.326171 -2.57833 200 151 132 255 
0.237914 0.328724 -2.60851 208 159 140 255 
0.261729 0.31886 -2.61245 213 163 142 255 
0.31449 0.322275 -2.61119 219 167 144 255 
0.338806 0.335418 -2.61144 222 170 145 255 
0.35202 0.318198 -2.61116 219 166 142 255 
0.373262 0.333216 -2.58261 228 175 151 255 
0.43198 0.320558 -2.48368 225 169 142 255 
0.449217 0.310795 -2.47006 219 161 134 255 
0.510972 0.310835 -2.39671 206 144 118 255 
0.540585 0.297051 -2.40105 207 144 119 255 
0.558627 0.289237 -2.37184 210 147 121 255 
0.582924 0.295934 -2.31391 210 144 120 255 
0.595089 0.283407 -2.31299 207 141 117 255 
0.61324 0.285902 -2.29696 206 137 114 255 
0.640735 0.283861 -2.25688 208 132 112 255 
0.647706 0.273625 -2.26739 205 134 112 255 
0.666676 0.27564 -2.19302 206 131 110 255 
0.682966 0.273416 -2.11834 204 129 109 255 
0.695279 0.260136 -2.13861 202 127 108 255 
0.767852 0.256239 -2.00937 220 153 137 255 
0.787839 0.245651 -2.0011 213 146 132 255 
0.863388 0.243824 -2.03084 159 106 96 255 
0.844458 0.246833 -2.00486 173 116 105 255 
0.888207 0.243535 -2.04225 127 83 79 255 
0.890176 0.254944 -2.0188 127 84 79 255 
0.930105 0.260703 -2.03483 103 65 64 255 
1.0778 0.275597 -2.19371 177 128 112 255 
1.10721 0.263907 -2.11725 181 130 106 255 
1.12266 0.251515 -2.11082 183 132 107 255 
1.13365 0.259889 -2.08648 187 135 111 255 
1.22158 0.259208 -2.07503 210 153 130 255 
1.21485 0.253821 -2.05616 208 151 128 255 
1.23747 0.247372 -2.05653 191 128 112 255 
1.26686 0.242262 -2.0438 176 108 102 255 
1.29622 0.242235 -2.05502 161 96 93 255 
1.31989 0.250157 -2.05576 134 71 73 255 
1.35616 0.252477 -2.08014 117 50 58 255 
1.42298 0.263825 -2.08614 222 144 141 255 
1.42528 0.24542 -2.04252 213 135 132 255 
1.47112 0.247155 -2.05113 207 129 126 255 
1.48002 0.250663 -1.99388 190 116 109 255 
1.48476 0.246629 -2.00138 190 116 109 255 
1.50929 0.251956 -1.99873 121 72 63 255 
1.56716 0.239229 -2.03569 118 73 63 255 
1.60835 0.246512 -2.06267 146 98 83 255 
1.61799 0.242218 -2.04811 174 121 99 255 
1.64465 0.250426 -2.08131 179 125 101 255 
1.67307 0.250692 -2.07861 202 145 116 255 
1.69881 0.250727 -2.08848 211 153 124 255 
1.7168 0.25015 -2.03578 218 161 132 255 
1.74126 0.241751 -2.03738 220 163 133 255 
1.75632 0.23861 -1.99066 217 160 131 255 
1.75196 0.237463 -1.98337 217 159 130 255 
1.75867 0.245215 -1.99027 217 160 131 255 
1.78054 0.236296 -1.98142 212 156 126 255 
1.77982 0.242055 -1.97265 211 155 126 255 
1.77982 0.242055 -1.97265 211 155 126 255 
1.779 0.243745 -1.98911 215 158 129 255 
1.77982 0.242055 -1.97265 211 155 126 255 
1.81996 0.242932 -1.98952 203 146 118 255 
1.83699 0.235752 -1.97316 194 140 113 255 
1.86076 0.231779 -1.90975 179 128 101 255 
1.96522 0.225043 -1.95296 137 100 83 255 
1.91965 0.221483 -1.85366 118 84 71 255 
1.9153 0.221861 -1.84986 120 85 72 255 
1.93216 0.223222 -1.86172 113 80 68 255 
-0.353315 0.346862 -2.83558 171 122 103 255 
-0.329122 0.348481 -2.83067 177 127 107 255 
-0.317506 0.322549 -2.81409 182 132 113 255 
-0.284595 0.330085 -2.81421 189 138 118 255 
-0.261837 0.344768 -2.79467 197 146 125 255 
-0.21287 0.336538 -2.7545 200 148 127 255 
-0.181934 0.315536 -2.74315 200 148 127 255 
-0.157932 0.322201 -2.71736 201 149 128 255 
-0.123238 0.324984 -2.71794 205 153 131 255 
-0.0985453 0.32734 -2.68212 210 158 137 255 
-0.0875098 0.322179 -2.67541 213 161 140 255 
-0.0647128 0.312449 -2.65023 217 164 144 255 
-0.0346657 0.29956 -2.62665 219 167 146 255 
-0.0150137 0.306454 -2.62099 215 163 143 255 
0.00751061 0.307088 -2.61662 215 164 144 255 
0.0311227 0.298793 -2.59228 211 159 140 255 
0.0533787 0.29775 -2.58152 211 159 140 255 
0.0749237 0.297344 -2.58438 205 154 136 255 
0.0860073 0.309794 -2.59349 205 154 136 255 
0.109636 0.299203 -2.59244 200 149 132 255 
0.131908 0.298146 -2.58444 190 140 122 255 
0.169705 0.304638 -2.63087 193 143 126 255 
0.192248 0.305345 -2.57983 193 144 126 255 
0.243049 0.299642 -2.60498 206 157 138 255 
0.300107 0.296525 -2.62192 215 164 141 255 
0.328134 0.305944 -2.61601 217 165 141 255 
0.366826 0.301693 -2.62403 215 162 138 255 
0.397303 0.30537 -2.55116 221 168 142 255 
0.420681 0.303552 -2.5214 220 167 140 255 
0.436907 0.29323 -2.50151 217 163 135 255 
0.459051 0.279505 -2.50189 213 158 131 255 
0.48385 0.281423 -2.47554 217 161 133 255 
0.504266 0.290507 -2.44511 209 150 124 255 
0.581469 0.284349 -2.36022 208 144 119 255 
0.612532 0.264499 -2.33184 205 140 117 255 
0.624694 0.259969 -2.27477 204 137 115 255 
0.644534 0.250017 -2.19406 202 136 115 255 
0.663384 0.264561 -2.25986 203 133 112 255 
0.679345 0.255626 -2.176 202 130 110 255 
0.708524 0.249611 -2.11679 203 130 112 255 
0.773132 0.224945 -2.00211 210 143 127 255 
0.768546 0.228474 -2.02034 211 144 128 255 
1.03225 0.242024 -2.21605 124 85 82 255 
1.08091 0.253674 -2.1934 183 135 115 255 
1.09338 0.255059 -2.19075 189 140 116 255 
1.09463 0.249675 -2.13266 191 140 116 255 
1.09099 0.234467 -2.15679 194 143 119 255 
1.11585 0.240488 -2.13078 175 123 99 255 
1.11062 0.236822 -2.12461 177 126 101 255 
1.10934 0.233899 -2.14032 186 135 111 255 
1.12975 0.229277 -2.11526 169 118 93 255 
1.13209 0.241431 -2.07913 183 132 107 255 
1.15374 0.229415 -2.07187 184 132 107 255 
1.15374 0.229415 -2.07187 184 132 107 255 
1.15374 0.229415 -2.07187 184 132 107 255 
1.18205 0.241459 -2.05963 202 147 123 255 
1.20269 0.230319 -2.05599 204 149 125 255 
1.27437 0.222198 -2.04461 168 102 96 255 
1.3084 0.227376 -2.05589 145 83 83 255 
1.35013 0.23076 -2.09122 118 56 61 255 
1.35667 0.23685 -2.10523 117 55 61 255 
1.41688 0.233452 -2.06596 209 131 129 255 
1.43213 0.221695 -2.0543 207 131 127 255 
1.46403 0.240379 -2.07263 210 131 128 255 
1.46537 0.2368 -2.07603 209 131 128 255 
1.48381 0.227636 -2.06896 207 132 126 255 
1.48033 0.235158 -2.02623 203 126 121 255 
1.49436 0.22868 -2.00134 161 99 88 255 
1.52063 0.225404 -2.01383 123 76 63 255 
1.52779 0.232217 -2.01412 118 73 61 255 
1.59437 0.223496 -2.06361 138 91 76 255 
1.66412 0.228576 -2.09582 186 130 103 255 
1.68468 0.223771 -2.09024 195 140 110 255 
1.71348 0.216693 -2.02571 217 161 131 255 
1.76029 0.225386 -2.03113 217 160 130 255 
1.81511 0.224574 -2.00355 207 150 121 255 
1.81517 0.223466 -1.9708 199 143 115 255 
1.84929 0.215019 -1.98939 188 134 107 255 
1.85082 0.216898 -1.97427 186 134 107 255 
1.85796 0.218228 -1.9378 183 131 104 255 
1.95565 0.211478 -1.91279 121 87 74 255 
2.28309 0.24347 -2.16905 105 72 61 255 
-0.507993 0.342084 -2.98856 133 88 74 255 
-0.467962 0.328673 -2.98759 147 99 82 255 
-0.370918 0.321745 -2.85341 173 124 106 255 
-0.353721 0.311027 -2.85141 171 122 104 255 
-0.32933 0.300222 -2.81541 174 124 105 255 
-0.341807 0.322847 -2.82574 172 122 103 255 
-0.306201 0.314993 -2.82249 184 134 114 255 
-0.241315 0.310406 -2.78625 191 139 119 255 
-0.265891 0.309468 -2.80702 189 138 118 255 
-0.191397 0.287626 -2.73769 200 147 126 255 
-0.200033 0.312163 -2.74489 199 147 126 255 
-0.179279 0.30925 -2.7445 201 149 127 255 
-0.15901 0.287561 -2.70447 199 146 125 255 
-0.122208 0.290707 -2.69915 207 155 133 255 
-0.105799 0.29402 -2.6819 211 159 137 255 
-0.0822807 0.293178 -2.67436 214 161 140 255 
-0.0269202 0.285384 -2.62003 213 161 141 255 
-0.00489065 0.283945 -2.60312 212 160 140 255 
0.0181961 0.278074 -2.59277 213 161 141 255 
0.04129 0.278269 -2.5829 212 161 141 255 
0.0638314 0.279343 -2.58117 209 158 139 255 
0.122024 0.280577 -2.59307 194 145 127 255 
0.148625 0.278777 -2.60141 187 138 121 255 
0.190289 0.275017 -2.57743 186 137 119 255 
0.214881 0.268092 -2.59167 189 142 124 255 
0.260079 0.292537 -2.61222 208 159 139 255 
0.271539 0.270457 -2.62062 203 155 134 255 
0.310578 0.276746 -2.61042 213 163 140 255 
0.33794 0.28759 -2.62049 212 161 137 255 
0.3799 0.280876 -2.62197 209 156 131 255 
0.430045 0.284384 -2.59046 207 154 127 255 
0.454501 0.283067 -2.56492 209 155 127 255 
0.507509 0.257392 -2.48261 213 158 130 255 
0.52817 0.263633 -2.41052 203 144 117 255 
0.533809 0.254435 -2.45006 209 152 125 255 
0.549606 0.254489 -2.35767 198 138 112 255 
0.60212 0.261178 -2.38904 207 142 119 255 
0.657021 0.245361 -2.30273 203 139 117 255 
0.678532 0.237011 -2.31394 199 137 115 255 
0.666083 0.237674 -2.21422 202 136 116 255 
0.667482 0.243488 -2.21785 203 136 116 255 
0.680431 0.234421 -2.18382 199 134 113 255 
0.692358 0.236225 -2.16339 199 131 112 255 
0.695503 0.223591 -2.08251 197 129 110 255 
0.765089 0.227223 -2.07857 207 140 123 255 
0.773437 0.215304 -2.03724 206 139 123 255 
0.802375 0.199817 -1.99676 198 135 119 255 
0.826899 0.219724 -2.01625 187 126 113 255 
0.858142 0.22066 -2.04065 163 109 98 255 
0.881909 0.220018 -2.04872 89 50 47 255 
1.05633 0.230467 -2.20975 136 93 85 255 
1.07919 0.218334 -2.2046 174 125 110 255 
1.10263 0.217241 -2.156 196 144 120 255 
1.13114 0.221827 -2.12548 168 116 92 255 
1.16534 0.216967 -2.04863 190 136 112 255 
1.21749 0.207569 -2.04985 203 149 126 255 
1.30759 0.213923 -2.04981 135 74 75 255 
1.30111 0.212002 -2.05854 147 85 84 255 
1.33118 0.20681 -2.0673 116 57 62 255 
1.34811 0.212622 -2.08344 113 53 59 255 
1.38472 0.212066 -2.12238 123 58 65 255 
1.42317 0.20869 -2.13115 187 109 110 255 
1.42366 0.226929 -2.12657 193 113 114 255 
1.42522 0.211014 -2.08244 201 126 122 255 
1.4506 0.198992 -2.04729 207 133 128 255 
1.4906 0.209523 -2.01978 181 115 103 255 
1.51257 0.209208 -2.01228 138 88 73 255 
1.53988 0.210312 -2.01444 133 85 71 255 
1.57626 0.199543 -2.06006 142 93 76 255 
1.57589 0.1999 -2.05935 142 93 76 255 
1.67108 0.206637 -2.10729 184 127 101 255 
1.70158 0.197361 -2.06094 204 145 116 255 
1.69985 0.211329 -2.02194 211 153 124 255 
1.76027 0.211457 -2.05581 215 157 128 255 
1.77327 0.197679 -2.03314 212 154 125 255 
1.7696 0.208999 -2.00563 215 157 128 255 
1.77669 0.20263 -2.02967 214 156 127 255 
1.78915 0.201167 -1.99576 210 152 123 255 
1.84933 0.209327 -2.01534 195 141 112 255 
1.8543 0.194877 -1.98054 187 135 108 255 
1.88543 0.188625 -1.97407 179 128 102 255 
1.87586 0.189331 -1.96242 179 129 103 255 
1.97637 0.204653 -1.99473 139 101 82 255 
2.00641 0.187709 -2.0065 121 89 76 255 
2.0124 0.199445 -1.9509 102 71 59 255 
2.21331 0.2089 -2.14341 96 65 53 255 
2.21496 0.21669 -2.14279 96 64 53 255 
2.23181 0.220306 -2.15454 98 67 55 255 
2.2291 0.199567 -2.07364 109 76 64 255 
-0.354785 0.289054 -2.82434 173 124 106 255 
-0.367263 0.289408 -2.85213 172 124 105 255 
-0.317067 0.28073 -2.8153 176 127 108 255 
-0.254453 0.286514 -2.79322 192 140 120 255 
-0.242686 0.285254 -2.78091 197 145 125 255 
-0.21624 0.286297 -2.76304 199 147 126 255 
-0.180139 0.273557 -2.72689 199 147 126 255 
-0.143135 0.269918 -2.69567 201 149 127 255 
-0.118835 0.270835 -2.68691 209 155 134 255 
-0.139692 0.264914 -2.68931 203 150 128 255 
-0.0978393 0.269808 -2.68035 212 158 137 255 
-0.115056 0.26782 -2.68598 210 156 135 255 
-0.0742426 0.269801 -2.66618 217 163 142 255 
-0.0401017 0.268335 -2.63055 218 166 145 255 
-0.0164343 0.25977 -2.60977 212 160 139 255 
0.00758062 0.254646 -2.59353 216 163 144 255 
0.031073 0.258727 -2.60097 214 162 142 255 
0.0515566 0.258606 -2.57719 206 155 135 255 
0.0906314 0.265453 -2.61538 205 153 135 255 
0.115267 0.261352 -2.59574 193 144 127 255 
0.138103 0.258343 -2.59511 184 137 120 255 
0.160852 0.25198 -2.59211 179 132 116 255 
0.24512 0.268553 -2.60649 196 149 130 255 
0.293193 0.251003 -2.60868 203 156 134 255 
0.320538 0.259382 -2.62281 206 157 135 255 
0.366033 0.25098 -2.65813 206 157 134 255 
0.390595 0.25905 -2.64569 206 156 131 255 
0.390078 0.258464 -2.63218 206 155 130 255 
0.493662 0.246346 -2.59639 216 163 134 255 
0.516819 0.237932 -2.54297 221 167 139 255 
0.542424 0.234651 -2.51958 222 167 139 255 
0.561611 0.234689 -2.40771 204 147 120 255 
0.580132 0.230279 -2.37082 203 145 119 255 
0.596823 0.239241 -2.39927 206 145 121 255 
0.637706 0.236685 -2.34616 203 142 119 255 
0.637706 0.236685 -2.34616 203 142 119 255 
0.637706 0.236685 -2.34616 203 142 119 255 
0.653008 0.222831 -2.31129 200 140 117 255 
0.653008 0.222831 -2.31129 200 140 117 255 
0.653008 0.222831 -2.31129 200 140 117 255 
0.653008 0.222831 -2.31129 200 140 117 255 
0.653008 0.222831 -2.31129 200 140 117 255 
0.653008 0.222831 -2.31129 200 140 117 255 
0.668633 0.227007 -2.29853 203 141 120 255 
0.684269 0.215387 -2.29992 200 138 117 255 
0.682282 0.215196 -2.26488 199 137 116 255 
0.681681 0.214666 -2.18275 197 134 113 255 
0.708895 0.209046 -2.22418 195 131 111 255 
0.694311 0.21014 -2.10047 192 125 106 255 
0.708049 0.195932 -2.08087 190 124 105 255 
0.754319 0.195858 -2.02131 199 133 116 255 
0.776403 0.188082 -2.02311 202 136 119 255 
0.797196 0.191904 -1.99378 200 136 120 255 
0.841694 0.195675 -2.05126 195 134 121 255 
0.869169 0.195409 -2.06451 170 115 103 255 
0.905794 0.196919 -2.10401 74 37 35 255 
0.972368 0.201281 -2.16931 66 34 35 255 
1.04572 0.20654 -2.21105 120 76 73 255 
1.12031 0.200023 -2.16014 196 144 120 255 
1.12404 0.199977 -2.12933 189 136 112 255 
1.14805 0.206999 -2.11516 173 120 96 255 
1.14249 0.187713 -2.12397 179 127 103 255 
1.24529 0.195974 -2.06466 196 141 120 255 
1.27199 0.190891 -2.07977 180 120 107 255 
1.32355 0.20063 -2.07389 124 64 67 255 
1.31823 0.190773 -2.07708 137 77 77 255 
1.34891 0.185734 -2.09063 113 54 60 255 
1.37018 0.195012 -2.10108 113 51 59 255 
1.43399 0.198349 -2.10589 197 125 119 255 
1.4462 0.200548 -2.07991 202 131 124 255 
1.48379 0.182359 -2.06213 206 133 126 255 
1.5 0.178601 -2.05407 188 124 110 255 
1.53163 0.1906 -2.02584 145 96 78 255 
1.60017 0.183853 -2.06252 162 110 90 255 
1.68867 0.182102 -2.09797 191 135 106 255 
1.71449 0.177897 -2.06651 209 151 122 255 
1.70202 0.192789 -2.03724 207 148 119 255 
1.73964 0.188614 -2.05593 218 161 132 255 
1.72843 0.186275 -2.02999 219 161 132 255 
1.72843 0.186275 -2.02999 219 161 132 255 
1.75023 0.170955 -2.01415 215 158 129 255 
1.77945 0.184502 -2.01381 210 152 123 255 
1.78424 0.185747 -2.00314 209 151 122 255 
1.7859 0.167833 -1.98671 206 149 119 255 
1.80195 0.169398 -2.00914 206 149 119 255 
1.79644 0.174295 -1.99945 207 149 120 255 
1.85624 0.185928 -1.99018 189 137 110 255 
1.86554 0.174239 -1.99779 183 133 106 255 
1.87247 0.180966 -2.00405 186 135 108 255 
1.89861 0.173949 -1.98708 173 124 99 255 
1.8905 0.166502 -1.97844 169 122 98 255 
1.96339 0.186338 -2.00411 150 108 87 255 
1.96528 0.173586 -1.9971 152 112 91 255 
1.98174 0.166953 -2.00196 136 101 84 255 
1.99451 0.169654 -2.01091 129 95 79 255 
2.02068 0.186806 -2.00421 110 79 68 255 
2.08145 0.183354 -2.03603 99 69 58 255 
2.08145 0.183354 -2.03603 99 69 58 255 
2.08402 0.184883 -2.03851 99 69 58 255 
2.08078 0.185076 -2.01097 96 65 54 255 
2.16133 0.180832 -2.01354 105 72 60 255 
-0.404229 0.27036 -2.83867 155 108 90 255 
-0.379168 0.270361 -2.83221 164 116 98 255 
-0.364781 0.254466 -2.85114 167 119 101 255 
-0.343751 0.272612 -2.83847 169 120 101 255 
-0.309937 0.249313 -2.82431 176 126 107 255 
-0.280322 0.264737 -2.80918 186 135 115 255 
-0.281476 0.255474 -2.81923 186 135 115 255 
-0.254148 0.26164 -2.80551 192 140 120 255 
-0.235507 0.258201 -2.81033 196 144 125 255 
-0.165783 0.255866 -2.71493 197 144 123 255 
-0.15576 0.242702 -2.69993 199 145 124 255 
-0.1121 0.244965 -2.69107 210 156 135 255 
-0.111621 0.240891 -2.69009 210 156 135 255 
-0.0875358 0.245864 -2.67349 212 158 137 255 
-0.0302527 0.238183 -2.62285 219 167 146 255 
-0.00205364 0.237789 -2.61554 219 166 147 255 
0.0216585 0.237918 -2.60318 218 166 146 255 
0.045582 0.236235 -2.60012 210 158 139 255 
0.0775444 0.239204 -2.57687 197 146 128 255 
0.101314 0.239161 -2.59086 189 141 123 255 
0.128946 0.235733 -2.60569 181 136 120 255 
0.19873 0.241823 -2.58133 176 131 114 255 
0.229497 0.245754 -2.62649 186 141 123 255 
0.259095 0.247473 -2.64584 190 144 124 255 
0.258583 0.24516 -2.65047 189 143 124 255 
0.304623 0.233963 -2.62016 198 152 130 255 
0.36515 0.233893 -2.64738 203 156 133 255 
0.38699 0.233604 -2.64073 204 156 132 255 
0.388989 0.234117 -2.6413 204 156 132 255 
0.414304 0.234557 -2.6469 208 160 134 255 
0.527467 0.227718 -2.55155 219 165 137 255 
0.567312 0.223857 -2.4754 212 156 129 255 
0.586788 0.220301 -2.44145 213 156 130 255 
0.670748 0.196318 -2.34258 198 138 116 255 
0.687725 0.210656 -2.31361 202 141 120 255 
0.687541 0.202289 -2.30786 201 141 120 255 
0.703518 0.200855 -2.31471 195 134 113 255 
0.704212 0.20596 -2.28619 196 134 114 255 
0.726145 0.199634 -2.31322 192 130 109 255 
0.789813 0.178543 -2.11069 200 136 118 255 
0.793994 0.167365 -2.05289 205 140 123 255 
0.828867 0.170646 -2.03351 207 145 129 255 
0.879127 0.172792 -2.09902 193 134 118 255 
0.899163 0.177697 -2.10646 159 104 94 255 
0.956301 0.179329 -2.16426 58 23 22 255 
1.02973 0.187393 -2.19132 113 70 66 255 
1.02973 0.187393 -2.19132 113 70 66 255 
1.02973 0.187393 -2.19132 113 70 66 255 
1.07648 0.196581 -2.22614 138 90 85 255 
1.10091 0.189529 -2.24376 178 128 113 255 
1.12289 0.175538 -2.21505 202 149 125 255 
1.12284 0.175413 -2.12648 193 141 116 255 
1.13569 0.181976 -2.15811 193 141 116 255 
1.16088 0.174239 -2.11965 182 130 106 255 
1.22702 0.173657 -2.08803 197 143 121 255 
1.24766 0.171097 -2.07262 199 147 125 255 
1.25793 0.174341 -2.04645 178 121 105 255 
1.27149 0.172101 -2.06235 173 116 100 255 
1.31002 0.16484 -2.0962 152 92 85 255 
1.38097 0.163964 -2.12174 110 53 59 255 
1.4072 0.166594 -2.15052 122 63 66 255 
1.4091 0.181061 -2.11434 170 98 100 255 
1.46262 0.179658 -2.10045 200 128 122 255 
1.43807 0.173564 -2.08134 196 126 118 255 
1.50565 0.172426 -2.05366 177 118 100 255 
1.51464 0.167204 -2.02024 161 110 88 255 
1.55463 0.174434 -2.04625 149 98 79 255 
1.55141 0.158256 -2.06477 160 108 86 255 
1.61251 0.158409 -2.04889 176 121 97 255 
1.69266 0.161214 -2.11073 188 131 103 255 
1.70545 0.170774 -2.08933 198 140 111 255 
1.721 0.156854 -2.07901 204 145 116 255 
1.7071 0.171526 -2.05069 207 148 119 255 
1.71861 0.155756 -2.03506 211 153 124 255 
1.73813 0.15691 -2.0352 212 154 125 255 
1.77056 0.161743 -2.03285 210 153 123 255 
1.7919 0.157801 -2.02567 207 149 120 255 
1.84629 0.157586 -2.00158 194 140 113 255 
1.80721 0.149503 -1.91306 178 129 103 255 
1.90245 0.159071 -1.99971 166 120 96 255 
1.90458 0.153568 -1.96534 160 117 94 255 
1.96556 0.167181 -2.01491 154 112 91 255 
2.06251 0.154472 -2.07107 105 75 63 255 
2.06251 0.154472 -2.07107 105 75 63 255 
2.02357 0.164757 -2.00187 107 77 65 255 
2.18285 0.169387 -2.14026 96 64 52 255 
2.18285 0.169387 -2.14026 96 64 53 255 
-0.465157 0.234751 -2.91107 134 89 73 255 
-0.418794 0.226734 -2.88017 148 101 84 255 
-0.395055 0.245405 -2.85412 156 109 91 255 
-0.346462 0.238748 -2.84364 168 119 101 255 
-0.318465 0.242213 -2.82085 170 121 102 255 
-0.304967 0.223423 -2.84409 176 127 108 255 
-0.280092 0.234123 -2.81425 187 136 116 255 
-0.104186 0.225498 -2.66678 211 156 135 255 
-0.0697666 0.221594 -2.66223 213 158 137 255 
-0.0473046 0.219049 -2.62743 218 165 144 255 
-0.0247807 0.209279 -2.6126 213 160 140 255 
0.0141676 0.217106 -2.60675 217 165 145 255 
0.0391584 0.215275 -2.60414 209 157 138 255 
0.064425 0.213447 -2.59956 199 148 129 255 
0.0704491 0.21666 -2.57575 197 146 128 255 
0.0929688 0.217501 -2.57167 187 140 124 255 
0.0827158 0.196811 -2.60063 183 137 122 255 
0.117305 0.216943 -2.5863 179 135 121 255 
0.10682 0.198825 -2.57639 172 131 119 255 
0.140257 0.217253 -2.58328 167 126 113 255 
0.163378 0.217249 -2.5858 164 124 112 255 
0.203756 0.218883 -2.61605 162 122 108 255 
0.250273 0.201393 -2.66787 178 134 115 255 
0.271072 0.222878 -2.67506 192 146 128 255 
0.296096 0.2137 -2.65152 193 148 127 255 
0.338682 0.22009 -2.63993 201 155 133 255 
0.363015 0.198067 -2.63792 202 157 134 255 
0.364246 0.219237 -2.64109 201 155 132 255 
0.377515 0.198585 -2.65122 206 160 137 255 
0.377697 0.212782 -2.65096 204 158 134 255 
0.402199 0.213347 -2.65398 209 163 138 255 
0.441632 0.222197 -2.65782 215 167 140 255 
0.454 0.202539 -2.65655 214 166 138 255 
0.487519 0.217697 -2.63142 214 163 134 255 
0.519762 0.19278 -2.60131 212 161 132 255 
0.54042 0.206337 -2.52367 214 160 131 255 
0.570823 0.205816 -2.52457 218 163 135 255 
0.587886 0.203325 -2.48343 219 164 137 255 
0.618974 0.199593 -2.44151 219 163 137 255 
0.650939 0.181589 -2.44327 214 158 133 255 
0.676585 0.183255 -2.38293 203 146 123 255 
0.698442 0.182386 -2.33277 197 137 116 255 
0.695992 0.185291 -2.33297 199 139 118 255 
0.835894 0.159306 -2.05506 210 147 131 255 
0.925933 0.155436 -2.13629 146 93 85 255 
0.969136 0.164236 -2.1692 98 53 50 255 
0.962182 0.155789 -2.16909 120 69 63 255 
0.982734 0.149617 -2.15604 126 77 71 255 
1.04817 0.164172 -2.24927 119 72 70 255 
1.07802 0.177623 -2.25543 122 76 71 255 
1.09516 0.164664 -2.24527 169 117 105 255 
1.11996 0.156997 -2.25824 199 145 124 255 
1.13647 0.160968 -2.19716 207 152 128 255 
1.15894 0.150759 -2.1449 189 135 111 255 
1.18369 0.153907 -2.10662 179 126 103 255 
1.20326 0.144638 -2.09805 179 127 104 255 
1.26035 0.147131 -2.06409 191 139 117 255 
1.31482 0.151586 -2.06163 130 72 72 255 
1.36505 0.150658 -2.13565 116 59 64 255 
1.36392 0.160564 -2.14112 119 61 64 255 
1.42567 0.154276 -2.09462 190 121 114 255 
1.46029 0.150205 -2.07866 199 130 122 255 
1.50703 0.1477 -2.0306 174 120 98 255 
1.56856 0.150287 -2.07994 161 109 88 255 
1.61186 0.149252 -2.05252 177 123 98 255 
1.67008 0.14431 -2.06535 191 135 106 255 
1.69838 0.154072 -2.08051 199 142 113 255 
1.72493 0.137858 -2.08158 202 144 115 255 
1.70994 0.149038 -2.0449 206 149 119 255 
1.68878 0.134467 -1.99388 208 150 120 255 
1.72791 0.135242 -2.06658 205 147 118 255 
1.72241 0.144416 -2.01964 211 154 124 255 
1.73647 0.147142 -2.04206 211 153 123 255 
1.72822 0.150358 -2.054 210 152 122 255 
1.77354 0.141612 -2.054 208 150 120 255 
1.77456 0.132502 -2.05108 206 148 118 255 
1.78431 0.148092 -2.0187 206 148 119 255 
1.78394 0.148859 -2.01743 206 148 119 255 
1.79551 0.14382 -2.04379 206 148 119 255 
1.78374 0.127899 -1.98068 201 144 115 255 
1.84989 0.131449 -1.99768 183 132 106 255 
1.85889 0.123521 -1.9522 163 119 96 255 
1.87754 0.125889 -1.97334 162 118 94 255 
1.90586 0.133338 -2.00076 162 117 94 255 
1.97539 0.133188 -2.03929 149 110 89 255 
2.00637 0.150272 -2.0529 138 101 83 255 
2.03146 0.140412 -2.07076 124 89 74 255 
2.04923 0.146615 -2.0716 126 93 79 255 
-0.412414 0.202621 -2.91186 149 102 85 255 
-0.396705 0.21987 -2.8516 154 107 89 255 
-0.361213 0.214958 -2.86079 163 115 97 255 
-0.333521 0.217566 -2.84511 169 120 102 255 
-0.296811 0.209966 -2.83287 177 127 108 255 
-0.310803 0.192935 -2.80537 169 119 101 255 
-0.269227 0.212309 -2.82438 186 135 115 255 
-0.284215 0.193551 -2.8048 180 129 110 255 
-0.175873 0.2011 -2.72991 196 141 120 255 
-0.130394 0.191463 -2.70858 204 149 128 255 
-0.104413 0.195851 -2.67535 208 153 132 255 
-0.0773656 0.181865 -2.69136 214 159 138 255 
-0.0579625 0.197505 -2.63856 217 162 141 255 
-0.0361002 0.186975 -2.62639 215 161 141 255 
-0.0338887 0.197037 -2.62623 213 160 139 255 
-0.00327351 0.17711 -2.62264 211 158 138 255 
0.0017286 0.197096 -2.60326 211 158 139 255 
0.0224417 0.17741 -2.6104 209 157 137 255 
0.0457379 0.178332 -2.5909 201 150 132 255 
0.0550075 0.195535 -2.58478 198 147 129 255 
0.0799072 0.190997 -2.58882 182 137 122 255 
0.104694 0.185293 -2.5774 164 127 115 255 
0.101751 0.175424 -2.59252 164 128 116 255 
0.131505 0.19371 -2.5763 160 123 112 255 
0.165466 0.174599 -2.58132 148 114 105 255 
0.194186 0.185585 -2.60695 152 117 106 255 
0.221663 0.195776 -2.63733 164 124 109 255 
0.268323 0.194903 -2.67221 184 139 119 255 
0.266546 0.178865 -2.68291 183 139 119 255 
0.293065 0.187926 -2.65488 192 147 125 255 
0.291066 0.194874 -2.6792 190 145 124 255 
0.342695 0.176606 -2.67842 197 152 130 255 
0.36437 0.178084 -2.64959 202 156 134 255 
0.366382 0.180949 -2.6784 201 155 133 255 
0.352433 0.198509 -2.65652 200 155 132 255 
0.373377 0.173661 -2.6373 204 158 135 255 
0.376062 0.173441 -2.64346 204 158 135 255 
0.388647 0.193379 -2.64377 208 163 139 255 
0.397768 0.172278 -2.62859 207 162 138 255 
0.411352 0.19301 -2.63599 212 166 141 255 
0.419704 0.171309 -2.61621 211 165 140 255 
0.498289 0.189301 -2.65366 215 165 136 255 
0.51757 0.185256 -2.62395 215 165 136 255 
0.548385 0.169353 -2.60138 216 165 136 255 
0.588759 0.179995 -2.53876 220 166 138 255 
0.605934 0.177624 -2.49807 223 168 142 255 
0.67768 0.166291 -2.4247 206 150 127 255 
0.67768 0.166291 -2.4247 206 150 127 255 
0.67768 0.166291 -2.4247 206 150 127 255 
0.695685 0.16567 -2.36077 200 143 121 255 
0.732129 0.151833 -2.41899 202 145 122 255 
0.73769 0.165622 -2.36596 192 133 111 255 
0.877995 0.168876 -2.38391 190 127 109 255 
0.831749 0.136007 -2.07208 209 146 129 255 
0.859687 0.129807 -2.0779 208 145 129 255 
0.889329 0.138675 -2.09346 196 136 121 255 
1.03984 0.14421 -2.24293 129 78 74 255 
1.0424 0.143693 -2.24957 129 78 74 255 
1.0424 0.143693 -2.24957 129 78 74 255 
1.10023 0.138128 -2.27388 166 113 102 255 
1.1293 0.144421 -2.22935 211 155 132 255 
1.15895 0.144124 -2.1857 201 144 121 255 
1.16873 0.126784 -2.16341 190 134 110 255 
1.17692 0.139845 -2.13543 175 122 99 255 
1.19281 0.128834 -2.11865 174 122 99 255 
1.217 0.130904 -2.11363 179 129 105 255 
1.26658 0.146061 -2.15546 193 141 118 255 
1.29541 0.139252 -2.09129 176 123 105 255 
1.43011 0.142584 -2.14294 185 119 116 255 
1.45496 0.133077 -2.14407 192 124 116 255 
1.47307 0.133641 -2.12709 193 125 116 255 
1.47422 0.130708 -2.08071 199 132 120 255 
1.53174 0.132793 -2.05259 173 119 96 255 
1.55572 0.117559 -2.07346 172 117 93 255 
1.57273 0.134305 -2.08447 164 111 88 255 
1.71469 0.11975 -2.07842 201 144 115 255 
1.727 0.129933 -2.06282 206 148 119 255 
1.76865 0.119437 -2.1146 209 152 122 255 
1.76181 0.122888 -2.10388 210 152 122 255 
1.70804 0.127858 -2.00563 209 151 122 255 
1.73638 0.133131 -2.0563 207 149 120 255 
1.77723 0.12241 -2.07913 209 152 122 255 
1.76978 0.115603 -2.05724 206 149 119 255 
1.73876 0.109315 -1.99413 207 150 120 255 
1.77191 0.120694 -1.96194 200 143 114 255 
1.89246 0.110626 -1.96641 153 111 89 255 
1.96487 0.125904 -2.04248 149 108 87 255 
1.98572 0.127488 -2.04101 144 105 86 255 
1.98572 0.127488 -2.04101 144 105 86 255 
1.99048 0.120867 -2.04101 144 106 87 255 
2.21793 0.133646 -2.22159 95 63 51 255 
2.28039 0.143629 -2.2585 96 64 52 255 
2.35113 0.127715 -2.31874 102 69 56 255 
-0.462757 0.19741 -2.93652 132 88 72 255 
-0.434741 0.199574 -2.9135 142 95 78 255 
-0.435053 0.199599 -2.91315 142 95 78 255 
-0.372622 0.180354 -2.86981 158 111 93 255 
-0.347551 0.195079 -2.85318 167 118 101 255 
-0.321385 0.194728 -2.8583 166 117 100 255 
-0.338338 0.186855 -2.82747 167 119 101 255 
-0.30117 0.169412 -2.82399 171 121 102 255 
-0.274848 0.169984 -2.82175 180 128 108 255 
-0.273987 0.17122 -2.80436 180 128 108 255 
-0.179406 0.160818 -2.72657 195 140 119 255 
-0.1521 0.162288 -2.73407 199 144 123 255 
-0.104368 0.174366 -2.68962 207 152 131 255 
-0.0447841 0.176448 -2.65031 216 162 141 255 
-0.0580773 0.150831 -2.61016 215 160 139 255 
0.0134902 0.157416 -2.61788 211 158 139 255 
0.0397729 0.154642 -2.62394 203 152 134 255 
0.11922 0.166066 -2.56524 158 123 113 255 
0.143826 0.164543 -2.57606 149 115 105 255 
0.213103 0.160986 -2.65435 152 115 104 255 
0.238637 0.172852 -2.65545 170 128 111 255 
0.247885 0.168753 -2.67237 173 131 113 255 
0.346748 0.170338 -2.67966 196 150 128 255 
0.364947 0.156557 -2.67896 198 152 129 255 
0.363245 0.155823 -2.68254 198 153 130 255 
0.388377 0.154155 -2.66157 200 155 132 255 
0.417656 0.156288 -2.68251 205 159 135 255 
0.444408 0.154874 -2.66501 212 165 138 255 
0.475966 0.158703 -2.66216 216 167 138 255 
0.512696 0.172178 -2.66937 220 170 141 255 
0.531298 0.167347 -2.63507 219 169 140 255 
0.573998 0.144055 -2.59164 220 168 140 255 
0.598565 0.14024 -2.54581 221 168 142 255 
0.623839 0.137619 -2.5257 223 170 144 255 
0.648928 0.147449 -2.50538 220 166 140 255 
0.666362 0.146177 -2.47884 215 160 135 255 
0.654782 0.143763 -2.48577 218 163 138 255 
0.688427 0.149327 -2.49221 213 158 134 255 
0.701051 0.150086 -2.41844 203 146 123 255 
0.701051 0.150086 -2.41844 203 146 123 255 
0.701051 0.150086 -2.41844 203 146 123 255 
0.736408 0.146013 -2.43011 203 147 124 255 
0.85668 0.146388 -2.38735 186 123 105 255 
0.862456 0.135741 -2.38999 184 123 104 255 
0.885723 0.144992 -2.40282 185 123 105 255 
0.890129 0.144895 -2.40142 186 124 106 255 
0.873717 0.13803 -2.30221 191 128 110 255 
0.890129 0.144895 -2.40142 190 127 109 255 
0.844333 0.119363 -2.06694 209 147 131 255 
1.01062 0.123623 -2.22164 147 93 84 255 
1.1671 0.109379 -2.21601 205 145 121 255 
1.14821 0.125337 -2.19806 207 148 124 255 
1.1875 0.115884 -2.1514 175 123 99 255 
1.20276 0.112243 -2.15258 174 123 99 255 
1.25033 0.120144 -2.13998 179 129 106 255 
1.33617 0.119021 -2.13125 161 111 94 255 
1.38701 0.112165 -2.16639 124 69 70 255 
1.39443 0.114356 -2.16446 116 60 64 255 
1.46099 0.115943 -2.19943 179 115 112 255 
1.4523 0.111508 -2.16507 174 110 106 255 
1.41831 0.119028 -2.13684 154 92 93 255 
1.46547 0.112968 -2.13868 185 118 110 255 
1.57569 0.108074 -2.13036 175 121 96 255 
1.7024 0.114015 -2.12855 189 134 105 255 
1.70755 0.112315 -2.14227 188 133 104 255 
1.71585 0.0972936 -2.11029 191 136 106 255 
1.74724 0.113937 -2.12407 202 144 115 255 
1.75831 0.111811 -2.11096 208 151 121 255 
1.77069 0.101111 -2.14138 204 147 117 255 
1.77121 0.111164 -2.11174 208 151 121 255 
1.78828 0.0999164 -2.10898 207 150 120 255 
1.788 0.101438 -2.07751 206 149 119 255 
1.80436 0.0944432 -2.06407 201 144 114 255 
1.85703 0.0997404 -2.06199 192 136 107 255 
1.93755 0.0991976 -2.06596 156 112 89 255 
1.94224 0.0945464 -2.06266 152 109 87 255 
1.95131 0.107413 -2.02823 147 107 86 255 
1.97139 0.0936058 -2.04825 142 104 85 255 
1.98732 0.0903669 -2.06088 143 105 86 255 
1.98333 0.108206 -2.0612 146 106 87 255 
2.00791 0.095143 -2.05922 130 94 78 255 
2.07095 0.10257 -2.1043 120 88 74 255 
2.07095 0.10257 -2.1043 120 88 74 255 
2.10775 0.110274 -2.1072 108 77 65 255 
2.33822 0.116812 -2.3327 98 66 53 255 
-0.500745 0.169633 -3.03664 117 77 64 255 
-0.456999 0.16638 -2.97743 138 92 76 255 
-0.430216 0.166736 -2.96444 145 98 81 255 
-0.391288 0.156104 -2.93638 156 109 91 255 
-0.329354 0.148355 -2.85645 163 114 96 255 
-0.326337 0.163188 -2.84981 165 116 98 255 
-0.242732 0.141861 -2.81104 182 128 108 255 
-0.207754 0.151109 -2.78067 189 134 113 255 
-0.207754 0.151109 -2.78067 189 134 113 255 
-0.118622 0.150103 -2.70444 205 150 129 255 
-0.0925703 0.14423 -2.6715 209 155 133 255 
-0.0303996 0.148275 -2.62166 216 163 142 255 
-0.00707974 0.1476 -2.61138 213 160 140 255 
-0.0184547 0.127396 -2.61936 212 160 139 255 
0.0213987 0.138402 -2.60231 211 159 139 255 
0.0868367 0.139691 -2.61262 159 125 116 255 
0.107694 0.131106 -2.5948 148 115 106 255 
0.133413 0.138796 -2.60666 149 115 105 255 
0.178114 0.142119 -2.5953 144 111 102 255 
0.291501 0.137648 -2.67108 194 150 129 255 
0.356692 0.133723 -2.70451 194 149 126 255 
0.382919 0.135474 -2.70444 195 149 127 255 
0.408642 0.134492 -2.70103 200 154 130 255 
0.432777 0.132184 -2.6864 204 158 132 255 
0.457045 0.133241 -2.67362 205 158 131 255 
0.526474 0.134682 -2.67415 217 169 140 255 
0.554418 0.140931 -2.63676 224 174 146 255 
0.578553 0.120856 -2.62249 231 180 154 255 
0.600804 0.12079 -2.58523 227 175 149 255 
0.626137 0.119028 -2.55597 227 174 149 255 
0.654434 0.120074 -2.54341 226 173 148 255 
0.68956 0.129083 -2.52282 219 165 141 255 
0.718115 0.133103 -2.50819 212 157 133 255 
0.752775 0.11355 -2.54495 219 164 141 255 
0.744147 0.132323 -2.48578 209 154 130 255 
0.787938 0.117974 -2.47607 212 157 133 255 
0.81656 0.119414 -2.48891 215 160 136 255 
0.780964 0.125128 -2.39852 205 148 125 255 
0.79667 0.122845 -2.40381 204 148 125 255 
0.79667 0.122845 -2.40381 204 148 125 255 
0.864154 0.117881 -2.38053 188 128 109 255 
0.862521 0.114722 -2.40156 192 133 112 255 
0.881312 0.107889 -2.35366 190 130 111 255 
0.89516 0.106726 -2.22165 188 126 109 255 
0.98786 0.111049 -2.21932 161 105 93 255 
0.98786 0.111049 -2.21932 161 105 93 255 
1.08136 0.113425 -2.32112 152 98 90 255 
1.07339 0.105298 -2.32933 155 99 91 255 
1.11414 0.105509 -2.26126 207 147 124 255 
1.11778 0.105346 -2.22639 214 154 129 255 
1.179 0.0959924 -2.18946 188 131 107 255 
1.22614 0.100456 -2.15245 177 126 102 255 
1.24282 0.101512 -2.15132 173 124 100 255 
1.34171 0.0901505 -2.14286 170 124 103 255 
1.46515 0.0943849 -2.16383 187 120 113 255 
1.47213 0.102526 -2.17507 188 121 114 255 
1.46422 0.0994652 -2.16002 187 121 113 255 
1.54941 0.0835626 -2.11577 183 128 103 255 
1.55192 0.0776544 -2.11566 184 129 103 255 
1.55615 0.0819816 -2.05233 176 121 96 255 
1.70956 0.0937637 -2.10725 190 136 106 255 
1.79314 0.0792073 -2.15419 199 143 114 255 
1.79641 0.0801987 -2.15952 199 143 114 255 
1.76729 0.0743452 -2.09327 199 143 114 255 
1.78151 0.0812398 -2.10391 203 146 117 255 
1.79148 0.0793002 -2.07792 202 145 116 255 
1.77975 0.0765799 -2.05879 200 144 114 255 
1.80866 0.0912069 -2.06541 201 144 114 255 
1.86423 0.0810969 -2.1066 195 139 109 255 
1.94093 0.0771425 -2.08978 166 120 96 255 
1.95615 0.087239 -2.07147 152 110 88 255 
1.91654 0.0754501 -2.00086 151 110 88 255 
2.08991 0.0871267 -2.12763 123 92 79 255 
2.09332 0.0732347 -2.06351 97 65 53 255 
-0.472534 0.142667 -2.9771 127 85 69 255 
-0.470978 0.142623 -2.96539 127 84 69 255 
-0.421027 0.139958 -2.97159 149 102 85 255 
-0.375179 0.130028 -2.91329 157 109 92 255 
-0.380347 0.14425 -2.88268 160 113 95 255 
-0.298083 0.134148 -2.83187 168 118 99 255 
-0.318364 0.128951 -2.84993 165 115 98 255 
-0.272188 0.133698 -2.84952 176 124 104 255 
-0.229272 0.125811 -2.78576 185 131 111 255 
-0.200274 0.122217 -2.75023 187 132 111 255 
-0.172014 0.118257 -2.73795 190 134 113 255 
-0.144208 0.114717 -2.73351 198 142 121 255 
-0.144533 0.134177 -2.72474 198 143 122 255 
-0.118255 0.109329 -2.70424 203 147 126 255 
-0.118531 0.128145 -2.71409 205 149 128 255 
-0.0935041 0.121639 -2.69125 208 153 131 255 
-0.0711901 0.115453 -2.66345 209 155 134 255 
-0.0711901 0.115453 -2.66345 209 155 134 255 
-0.0460034 0.107332 -2.61997 215 161 140 255 
0.0480129 0.119158 -2.63534 187 142 127 255 
0.107128 0.108773 -2.60692 137 107 100 255 
0.131525 0.121095 -2.59305 138 108 99 255 
0.15831 0.105392 -2.64531 133 102 95 255 
0.212734 0.10593 -2.68882 153 116 105 255 
0.281349 0.117457 -2.6871 195 150 129 255 
0.30486 0.115634 -2.66971 194 150 127 255 
0.336899 0.117382 -2.70614 194 149 126 255 
0.37615 0.104841 -2.70173 190 145 122 255 
0.403516 0.112301 -2.71967 194 148 125 255 
0.385935 0.127296 -2.70575 193 148 126 255 
0.425804 0.119065 -2.71094 198 152 128 255 
0.440657 0.102199 -2.7049 159 114 96 255 
0.464562 0.102542 -2.70409 129 85 70 255 
0.493556 0.10308 -2.71938 178 132 110 255 
0.492862 0.124672 -2.68515 198 151 125 255 
0.523617 0.112699 -2.69126 211 163 138 255 
0.548532 0.0979651 -2.64968 229 181 157 255 
0.549897 0.11806 -2.64293 230 181 154 255 
0.547221 0.0998056 -2.65547 228 180 155 255 
0.550752 0.121227 -2.63607 230 180 154 255 
0.575053 0.108419 -2.62698 235 185 160 255 
0.594825 0.0969817 -2.62893 237 188 164 255 
0.625778 0.0969382 -2.58147 233 183 159 255 
0.659599 0.0945847 -2.59784 234 184 159 255 
0.662292 0.110428 -2.55972 229 177 153 255 
0.683946 0.09401 -2.58246 233 181 158 255 
0.708951 0.0939804 -2.56863 232 181 158 255 
0.720315 0.11304 -2.54282 221 168 144 255 
0.75394 0.111726 -2.54491 220 165 142 255 
0.739963 0.0911592 -2.54618 230 177 154 255 
0.777322 0.111057 -2.52215 216 161 137 255 
0.761072 0.0962702 -2.53451 224 170 147 255 
0.798138 0.0997714 -2.51505 219 164 140 255 
0.818834 0.0894156 -2.51259 225 171 146 255 
0.806784 0.106591 -2.46719 219 164 139 255 
0.834209 0.0845914 -2.47602 226 171 147 255 
0.839562 0.102995 -2.45075 221 167 142 255 
0.853869 0.0942254 -2.41245 220 163 140 255 
0.871756 0.0918991 -2.38816 208 151 129 255 
0.887141 0.0793864 -2.35975 210 153 131 255 
0.896296 0.0950475 -2.32621 188 128 109 255 
0.91761 0.0853207 -2.26885 186 127 108 255 
0.928044 0.0901204 -2.28485 178 120 102 255 
0.996285 0.0800233 -2.3685 180 123 106 255 
1.14748 0.0820307 -2.28276 214 153 128 255 
1.15897 0.0877206 -2.22536 211 151 125 255 
1.19295 0.0730404 -2.24701 205 143 118 255 
1.19155 0.0684058 -2.15696 191 135 111 255 
1.26055 0.0803496 -2.15967 172 125 102 255 
1.30765 0.0646088 -2.11484 177 130 108 255 
1.36149 0.0741433 -2.14214 149 102 88 255 
1.41274 0.0749445 -2.19343 122 72 69 255 
1.46719 0.0733513 -2.21184 177 117 114 255 
1.47762 0.0701128 -2.22936 171 112 107 255 
1.4745 0.0763131 -2.13925 196 134 116 255 
1.52426 0.0646705 -2.14647 194 137 112 255 
1.6545 0.0714419 -2.15362 179 124 97 255 
1.70986 0.0691621 -2.14212 184 129 101 255 
1.77921 0.0792877 -2.19076 194 139 109 255 
1.76745 0.0591306 -2.16486 192 136 107 255 
1.77391 0.0577076 -2.14323 194 139 109 255 
1.79859 0.059261 -2.12676 201 145 116 255 
1.79447 0.0596601 -2.11744 201 145 116 255 
1.84823 0.0616007 -2.10836 197 141 111 255 
1.86723 0.0727597 -2.11028 194 138 109 255 
1.86737 0.0644192 -2.06849 185 131 102 255 
1.96375 0.0538415 -2.08554 159 116 93 255 
2.03213 0.0556247 -2.13132 141 103 85 255 
2.06593 0.0563069 -2.13634 120 87 73 255 
2.05399 0.067881 -2.13236 126 91 76 255 
2.08613 0.0640134 -2.11551 108 76 64 255 
2.16271 0.0586335 -2.18854 97 65 53 255 
2.16716 0.0616218 -2.1728 97 65 53 255 
-0.430297 0.102599 -2.97487 146 100 82 255 
-0.403205 0.116216 -2.94881 150 103 86 255 
-0.419767 0.108808 -2.91939 147 100 83 255 
-0.352891 0.10365 -2.88035 163 115 96 255 
-0.315279 0.105711 -2.85582 164 114 96 255 
-0.250701 0.0920233 -2.83472 177 124 104 255 
-0.254362 0.102175 -2.8145 179 126 106 255 
-0.200836 0.0937688 -2.78566 185 130 109 255 
-0.171435 0.0982327 -2.73684 192 136 115 255 
-0.144292 0.0900859 -2.75593 196 140 119 255 
-0.11815 0.0873796 -2.70946 199 143 122 255 
-0.0708157 0.0927916 -2.70037 209 154 133 255 
-0.0452015 0.0823459 -2.66531 211 157 136 255 
-0.0128377 0.0992405 -2.62054 206 154 134 255 
-0.0198257 0.0941389 -2.61955 208 157 136 255 
0.0162497 0.0777643 -2.62121 205 155 135 255 
0.0320204 0.0981775 -2.6291 198 149 132 255 
0.0505279 0.0801096 -2.61668 164 127 115 255 
0.0785131 0.0917144 -2.57117 135 106 100 255 
0.106581 0.0875993 -2.61385 124 98 93 255 
0.131904 0.0969555 -2.61594 125 99 93 255 
0.169186 0.0836303 -2.64678 132 103 95 255 
0.187888 0.102324 -2.69021 139 106 98 255 
0.271564 0.0860783 -2.68331 196 151 129 255 
0.293915 0.0939103 -2.67717 196 151 129 255 
0.356888 0.0930813 -2.71017 189 144 121 255 
0.364214 0.0789954 -2.71748 189 143 121 255 
0.390746 0.088407 -2.72756 189 143 120 255 
0.415278 0.0934685 -2.72401 182 137 116 255 
0.419428 0.0957389 -2.72112 181 135 115 255 
0.456743 0.0832454 -2.72935 98 55 52 255 
0.454794 0.0821325 -2.74309 86 43 43 255 
0.524014 0.0910557 -2.72374 206 159 134 255 
0.544437 0.0761617 -2.66492 220 173 150 255 
0.574351 0.0857266 -2.64794 237 189 165 255 
0.571443 0.0864816 -2.65251 236 188 164 255 
0.628125 0.0740672 -2.62877 236 188 165 255 
0.677065 0.0797676 -2.5905 237 187 164 255 
0.704319 0.0729853 -2.59496 238 188 165 255 
0.722542 0.0694827 -2.56315 237 187 165 255 
0.781134 0.0847667 -2.52745 226 172 148 255 
0.803205 0.0735848 -2.52719 229 175 150 255 
0.813416 0.0718446 -2.5392 229 174 150 255 
0.834067 0.0706937 -2.52243 229 175 151 255 
0.848647 0.0653942 -2.48075 231 176 152 255 
0.863899 0.0658585 -2.44924 231 175 151 255 
0.87974 0.0660261 -2.39706 229 172 149 255 
0.89783 0.0560364 -2.37455 228 172 149 255 
0.93873 0.0677999 -2.35052 209 152 131 255 
0.947504 0.0719882 -2.30456 189 132 113 255 
0.998624 0.06592 -2.38613 205 149 128 255 
1.03464 0.0702479 -2.35008 191 135 116 255 
1.0503 0.0517915 -2.28835 216 158 134 255 
1.17098 0.0685706 -2.27664 214 153 128 255 
1.2026 0.0518824 -2.21098 201 142 115 255 
1.30369 0.0409414 -2.14849 177 131 107 255 
1.37858 0.0593306 -2.2226 170 123 102 255 
1.46202 0.0542164 -2.21021 146 93 87 255 
1.4772 0.0591697 -2.18897 185 125 111 255 
1.47666 0.0475161 -2.19371 177 121 108 255 
1.47826 0.0521044 -2.19577 177 120 107 255 
1.49916 0.0547704 -2.19505 197 137 116 255 
1.49487 0.0564993 -2.13436 198 141 115 255 
1.55955 0.045497 -2.16698 189 133 107 255 
1.66481 0.0503008 -2.18397 181 126 100 255 
1.79395 0.0473059 -2.21715 189 134 104 255 
1.80452 0.0365929 -2.17364 194 138 109 255 
1.78927 0.0501685 -2.14904 195 139 109 255 
1.7946 0.0350979 -2.1584 193 138 108 255 
1.80248 0.0373662 -2.16746 194 138 109 255 
1.79788 0.0482825 -2.14774 196 141 111 255 
1.79675 0.0355272 -2.15319 194 139 109 255 
1.7866 0.0537882 -2.12161 198 142 112 255 
1.80916 0.0527491 -2.13441 199 143 114 255 
1.80663 0.0385716 -2.11632 196 140 110 255 
1.8749 0.0422577 -2.09461 187 132 104 255 
2.03399 0.0425281 -2.15316 146 107 88 255 
2.02603 0.0337498 -2.10926 132 96 79 255 
2.05684 0.0502244 -2.13377 127 93 78 255 
2.06228 0.0342628 -2.12997 128 94 79 255 
2.05595 0.0313693 -2.12841 120 87 72 255 
2.08093 0.0330907 -2.13253 113 81 67 255 
2.158 0.0355966 -2.19374 101 68 55 255 
2.14774 0.0475543 -2.18088 104 72 59 255 
2.23035 0.0374563 -2.24638 101 68 55 255 
-0.331894 0.0835659 -2.87424 162 113 95 255 
-0.303275 0.0886453 -2.82331 163 113 95 255 
-0.198967 0.0662057 -2.79216 183 127 107 255 
-0.210817 0.0863351 -2.79394 184 129 108 255 
-0.17156 0.0717752 -2.76119 194 138 117 255 
-0.148114 0.0730489 -2.75942 197 140 119 255 
-0.0928598 0.0609244 -2.68345 202 147 126 255 
-0.0782241 0.0804614 -2.69738 209 154 133 255 
-0.0695126 0.0621655 -2.68344 208 153 132 255 
-0.0453528 0.0638735 -2.66409 208 155 134 255 
0.0680486 0.0710434 -2.58953 135 107 99 255 
0.0937974 0.0688826 -2.59868 117 92 88 255 
0.142647 0.074572 -2.62716 117 93 88 255 
0.157996 0.058233 -2.65298 124 97 92 255 
0.183303 0.0574744 -2.67505 140 107 98 255 
0.186616 0.0653225 -2.71156 140 107 98 255 
0.211784 0.0620463 -2.72806 155 117 104 255 
0.233869 0.0714412 -2.70772 176 135 118 255 
0.394708 0.0651476 -2.70156 154 111 95 255 
0.415581 0.063166 -2.72105 94 56 52 255 
0.447469 0.0570783 -2.75992 99 63 67 255 
0.495467 0.0580086 -2.76968 179 133 115 255 
0.518046 0.0684746 -2.72873 197 150 128 255 
0.542394 0.0557069 -2.72125 206 158 137 255 
0.571561 0.0636871 -2.67113 230 182 160 255 
0.557554 0.0684952 -2.6807 223 176 153 255 
0.592432 0.0631704 -2.65031 234 186 163 255 
0.601856 0.0723413 -2.64647 235 188 164 255 
0.652749 0.0694431 -2.60611 239 191 168 255 
0.668259 0.0546595 -2.59147 241 192 169 255 
0.684422 0.0562572 -2.57437 240 190 167 255 
0.691463 0.0539074 -2.58709 241 192 169 255 
0.707387 0.050999 -2.5621 242 193 170 255 
0.733429 0.0489798 -2.56022 240 189 167 255 
0.743513 0.0600905 -2.526 236 186 163 255 
0.775238 0.046915 -2.52742 236 184 161 255 
0.794553 0.0529785 -2.54035 233 179 155 255 
0.816169 0.0528795 -2.52808 230 175 151 255 
0.818752 0.0436798 -2.50168 232 178 154 255 
0.863623 0.0487612 -2.49094 233 176 153 255 
0.910047 0.0510686 -2.47059 233 178 154 255 
0.978741 0.0351592 -2.35215 227 172 148 255 
1.02454 0.0396914 -2.37665 222 166 143 255 
1.01709 0.0476255 -2.2711 224 166 143 255 
1.03374 0.0383466 -2.31112 222 165 142 255 
1.14263 0.0287155 -2.32918 218 158 132 255 
1.22451 0.0352023 -2.18655 192 138 113 255 
1.24639 0.0345185 -2.17721 185 136 113 255 
1.24396 0.0344582 -2.17188 185 136 113 255 
1.37327 0.0257197 -2.24775 172 127 104 255 
1.38943 0.0414155 -2.21995 158 113 93 255 
1.38017 0.0299586 -2.20309 161 116 96 255 
1.44647 0.0214999 -2.22305 106 59 52 255 
1.42785 0.0273835 -2.14166 147 98 87 255 
1.46857 0.0334924 -2.22831 133 84 76 255 
1.4739 0.0357422 -2.22936 152 101 90 255 
1.49099 0.0328369 -2.17378 199 143 117 255 
1.47825 0.0321384 -2.15333 198 143 116 255 
1.47825 0.0321384 -2.15333 198 143 116 255 
1.47825 0.0321384 -2.15333 198 143 116 255 
1.65732 0.0200591 -2.16885 181 127 101 255 
1.77889 0.0180915 -2.20473 184 130 101 255 
1.79253 0.0327485 -2.16728 192 137 107 255 
1.81523 0.0179048 -2.19596 191 137 107 255 
1.81225 0.0330733 -2.15297 195 140 110 255 
1.84028 0.0126984 -2.14576 190 135 106 255 
1.93243 0.0109236 -2.13971 180 129 102 255 
2.15934 0.0139653 -2.20883 101 69 56 255 
2.23638 0.0325903 -2.25818 101 69 56 255 
2.31511 0.0200585 -2.32977 108 75 62 255 
2.31065 0.0323514 -2.32802 105 73 60 255 
-0.387816 0.0667411 -2.84799 153 106 88 255 
-0.395487 0.0674779 -2.91419 152 104 87 255 
-0.397771 0.0498036 -2.94416 154 106 89 255 
-0.370065 0.0514215 -2.90355 158 110 92 255 
-0.296642 0.0545091 -2.88588 164 112 93 255 
-0.320932 0.0589027 -2.8937 164 113 96 255 
-0.268143 0.0628785 -2.85569 172 119 100 255 
-0.2662 0.0466091 -2.86778 175 122 102 255 
-0.240465 0.0468744 -2.83572 177 123 103 255 
-0.214507 0.0404405 -2.81412 179 124 104 255 
-0.18467 0.0490787 -2.77495 186 130 110 255 
-0.136204 0.0506473 -2.76692 194 137 117 255 
-0.0805196 0.0394401 -2.68801 203 149 127 255 
-0.0564441 0.0463405 -2.65294 206 153 131 255 
-0.0319296 0.0456284 -2.64919 204 153 131 255 
-0.00691013 0.0440104 -2.63923 203 153 132 255 
0.114589 0.0465005 -2.63427 99 77 72 255 
0.0998854 0.042236 -2.58687 93 71 68 255 
0.136858 0.0384165 -2.62882 110 87 83 255 
0.23812 0.0468696 -2.68372 187 144 123 255 
0.304865 0.0328112 -2.69591 196 151 127 255 
0.334874 0.0483974 -2.65444 186 141 116 255 
0.377411 0.0364057 -2.70151 125 86 74 255 
0.377662 0.0365729 -2.70258 125 85 73 255 
0.377662 0.0365729 -2.70258 125 85 73 255 
0.383679 0.0431075 -2.70304 125 85 75 255 
0.417212 0.0368259 -2.75275 87 60 63 255 
0.448051 0.0305251 -2.78559 141 118 116 255 
0.462862 0.0480915 -2.77167 125 89 86 255 
0.480167 0.0500171 -2.78846 148 107 96 255 
0.489658 0.0322159 -2.76229 174 129 113 255 
0.506116 0.0436689 -2.77822 191 145 125 255 
0.522484 0.0464005 -2.77512 196 149 129 255 
0.56385 0.042505 -2.69351 214 166 145 255 
0.588735 0.0428032 -2.6907 226 179 156 255 
0.610576 0.0425237 -2.67734 234 186 163 255 
0.612314 0.0465185 -2.65007 235 187 165 255 
0.627982 0.0281003 -2.63905 234 186 164 255 
0.647115 0.0425406 -2.61606 238 190 167 255 
0.691856 0.0239873 -2.58128 239 190 167 255 
0.697436 0.0237461 -2.57661 240 191 168 255 
0.707628 0.0388057 -2.55945 242 192 169 255 
0.760399 0.0394444 -2.56156 240 189 166 255 
0.797546 0.0264059 -2.53272 238 184 161 255 
0.851042 0.0303631 -2.52162 234 178 154 255 
0.970343 0.0320116 -2.43338 232 176 152 255 
0.971845 0.0222711 -2.40665 231 176 152 255 
1.00504 0.0245203 -2.41319 228 172 148 255 
1.06692 0.00920239 -2.36222 232 175 151 255 
1.06445 0.0131036 -2.35904 232 175 151 255 
1.17578 0.0199776 -2.35087 221 160 135 255 
1.1871 0.00621677 -2.31862 220 160 134 255 
1.18727 0.00625477 -2.31903 220 160 134 255 
1.23671 0.0133715 -2.25432 202 145 119 255 
1.22953 0.0122527 -2.23882 202 145 119 255 
1.23339 0.0117406 -2.18682 185 133 109 255 
1.23991 0.0145837 -2.16675 182 133 110 255 
1.26958 0.0178848 -2.15148 181 135 111 255 
1.40638 0.00179211 -2.23655 151 107 88 255 
